# .PCD v0.7 - Point Cloud Data file format
VERSION 0.7
FIELDS x y z
SIZE 4 4 4
TYPE F F F
COUNT 1 1 1
WIDTH 212
HEIGHT 1
VIEWPOINT 0 0 0 1 0 0 0
POINTS 212
DATA ascii
33.902405 -1.7218074 1.964851
35.779526 -3.0427737 2.0875554
9.8052874 6.7502251 1.0994208
10.241724 6.409934 1.0516442
16.159748 7.116199 1.0895232
9.2970152 11.101619 1.34609
10.219883 10.505221 1.2496043
15.945404 10.810415 1.2008183
22.206079 10.7637 1.2907934
28.259464 10.574656 1.3597276
35.02869 14.931025 1.1399966
-3.5137491 17.476868 2.1911125
3.1958637 17.421957 1.8117199
9.629837 17.332327 1.7109437
15.996185 17.447565 1.1878109
22.318466 17.424084 1.3721641
28.123568 17.366693 1.7877026
34.922134 19.501377 1.8864095
35.098381 15.44149 1.4784524
41.313126 17.443239 1.6055213
-6.0365872 22.604679 1.4187245
-3.4051881 23.173195 1.671761
3.2528868 23.876961 2.0133011
9.6097527 23.53299 1.9037924
15.771053 23.721981 1.2425301
22.245869 23.686817 1.4454696
28.696157 23.893944 1.8920329
34.981518 23.491238 1.9170792
35.003967 23.495872 1.95329
41.090332 23.045689 1.8764012
47.661987 23.482433 1.6744802
-3.6988258 26.21245 1.7227912
2.9571166 27.994019 1.9384146
9.7023163 27.924824 1.8951474
15.584129 28.151505 1.298032
22.608341 27.758986 1.4135039
28.679539 27.832283 1.9347559
34.971191 27.866692 1.9291806
35.042274 27.863905 1.7416813
41.316139 27.676659 1.5513998
47.589172 27.504185 1.8285881
-3.2582304 32.554962 2.0449629
3.0073924 32.321014 1.9416559
9.6443348 32.326317 1.8891819
15.755577 32.289009 1.2987549
22.441376 32.178288 1.181736
28.724281 32.18766 1.9975991
34.995567 31.947206 1.8019794
35.08572 32.004246 1.7878532
41.267586 31.946659 1.8365842
47.662697 31.495508 1.8217924
-3.2670383 39.908066 1.9520333
3.1053152 36.572426 1.8621732
9.5164976 36.55825 1.9163851
15.879686 36.500351 1.3441932
22.611671 36.516312 1.3414278
28.731871 36.200268 1.9201789
35.608185 36.280258 1.9849412
41.287468 36.151485 1.8939123
47.630226 39.594833 1.5698438
-9.4836454 42.753815 1.9851893
-3.1746213 42.980671 1.9442023
3.3408108 40.894691 2.0559704
9.4862204 42.867401 1.9454972
15.733606 40.76815 1.3182461
22.31353 40.777077 1.3080853
28.652872 42.71236 1.8834648
34.943604 44.767487 1.9462891
35.003311 40.484062 1.8528655
41.211456 42.048931 1.7747458
47.51965 42.151917 1.6630608
-10.073392 46.254005 1.3595222
-9.6508493 47.246471 1.9521331
-3.1872482 48.294319 2.0089188
3.2443447 46.814938 1.9892063
9.3549891 48.455624 2.0156014
15.829288 46.587009 1.1775507
22.448599 46.023907 1.4190683
28.796013 48.419216 1.7198321
34.968998 47.423103 1.6992868
35.109047 48.367332 1.9938593
41.52515 48.213898 1.8758888
47.726482 46.66811 1.4656335
-10.129702 53.552181 1.7914717
-9.6920986 52.580559 2.0593932
-3.0150826 52.504646 1.9125724
3.4735215 52.568436 2.2552614
9.5956631 52.576714 1.7663243
16.180088 52.576004 1.1823928
22.429562 52.592728 1.3317498
28.620056 52.389595 1.9895097
34.846394 52.969185 1.9880369
35.095581 52.586563 2.0604351
41.073372 52.262505 1.9224517
47.687294 53.666729 1.4572308
-9.621953 57.008499 2.0966644
-3.4907308 56.93663 2.2444794
3.0758443 56.771782 2.238106
9.8184719 57.18306 2.01999
10.242332 57.928814 1.2376276
15.671154 57.059959 1.1246058
22.337704 56.929085 1.3358397
28.768238 56.948185 1.7987139
34.828972 58.057663 1.5700738
35.152714 56.627571 1.8300009
41.527794 56.594669 1.8936371
47.745567 56.95694 2.1038518
-9.1115074 61.344788 1.9313449
-3.2783151 60.749199 1.9771782
3.1525228 60.975311 1.9488144
9.7472267 61.004143 1.9159474
10.205459 61.951832 1.2651368
16.004591 61.059475 1.2929025
22.368401 61.009689 1.3656135
28.826721 61.023079 1.7274553
34.926537 61.153099 1.9621773
35.134583 60.875137 1.8300406
41.338493 60.899445 1.9079098
47.851543 60.71035 1.9347649
-10.380409 65.124542 2.346467
-9.8580313 65.332809 2.0463469
-3.2015102 65.183777 2.1019104
3.3456531 65.517349 1.9837735
9.6270733 65.494247 2.0040877
15.62011 65.46524 1.3696632
22.508652 65.3097 1.3119574
28.819401 65.335648 1.857576
34.968307 65.353287 1.8684919
35.131779 65.290207 2.081419
41.458466 65.21756 1.9970036
47.529938 65.168915 2.0262132
-9.4980192 70.173019 2.0051904
-3.3511479 70.079559 1.8314638
2.8004441 70.242279 1.8938431
9.7917366 70.144699 1.9443169
15.734188 70.228378 1.3585899
22.288166 70.095474 1.4002851
28.687321 70.116272 1.8269675
34.849358 70.247894 1.9695929
35.042847 74.662315 1.8360821
41.291309 70.219215 1.6647743
47.844028 70.761955 1.4012687
-9.6935062 78.452477 2.060225
-2.8972824 78.083771 2.1859334
3.0162032 75.077606 1.9774337
9.1627693 78.399818 1.8256211
15.631767 78.313583 1.2180499
22.536055 75.061081 1.3103609
29.05241 78.325699 1.8678865
34.934612 78.247955 2.0331011
35.257748 76.639847 2.1773672
41.261246 77.961075 2.0334609
48.020252 77.715309 2.0225227
-10.00499 84.974884 1.6036124
-9.5836983 82.5578 1.9800035
-3.3403211 82.459633 2.2282188
3.4557381 82.216415 2.2655439
9.5894547 82.011162 1.8876269
16.013294 80.248947 1.2290902
22.522211 82.590157 1.3518968
28.626507 82.189453 1.8914233
34.936977 82.817749 1.9154611
35.226418 82.449692 1.8749952
41.03101 81.921585 1.9495944
47.576145 81.888596 1.8262565
-9.4106941 85.244247 2.007776
-3.2468777 85.242676 1.9627556
3.1791205 86.358307 1.9171762
9.6681919 87.956863 1.8229628
15.722075 85.649361 1.2739949
22.219707 86.569191 1.2862804
28.426216 88.774994 1.8696694
34.940304 85.114853 1.9143093
35.032211 85.697571 1.9536028
41.856991 86.120636 2.2666962
47.944199 87.318039 2.6561322
-10.104425 91.292656 2.0699203
-9.8545856 91.349541 2.0775585
-4.0685148 90.379913 1.5445386
3.4191127 90.761986 2.0628467
9.4441547 93.440872 1.9531584
15.796572 91.002213 1.307059
22.636698 91.048096 1.3334209
28.510975 91.647552 1.8969157
34.96151 90.515732 1.7101794
35.082878 94.906403 2.0498378
41.356529 90.275322 1.8932085
47.973328 90.502274 1.5725904
-9.8274803 95.586044 2.5318961
-3.1651895 95.458069 1.8683052
2.9728923 95.266922 2.0217128
9.3912926 95.12735 1.9481876
15.788416 95.329689 1.2703543
22.468704 95.240555 1.2804587
28.915739 95.189758 2.1349211
34.929115 95.240776 2.0149193
35.09531 97.045853 1.9982743
41.664791 98.953712 1.8915513
47.635269 95.070374 1.8664212
-9.5042448 100.09578 1.8860565
-3.0352018 103.83601 2.2787271
3.200187 100.11432 1.9647434
9.4766626 100.14088 2.0579939
10.145641 103.4502 2.1032765
15.420782 100.13997 1.3080645
22.653776 100.07219 1.2988188
28.767502 100.17162 1.9913297
34.911877 100.08177 1.9286098
35.503498 103.95198 2.0151982
41.227371 103.40306 1.8550758
47.846535 103.53753 1.5842624
-3.9924641 107.93866 1.4095931
