# .PCD v0.7 - Point Cloud Data file format
VERSION 0.7
FIELDS x y z
SIZE 4 4 4
TYPE F F F
COUNT 1 1 1
WIDTH 510
HEIGHT 1
VIEWPOINT 0 0 0 1 0 0 0
POINTS 510
DATA ascii
3.3704679 -10.5286 1.4853199
9.4536028 -10.703204 1.4771739
22.245029 -10.457193 1.2636456
28.481695 -12.326958 1.1526779
34.823891 -10.475879 1.0956371
41.194115 -10.213799 1.2286961
-3.113611 -9.8449316 1.4083791
2.9411135 -5.8388224 1.5260065
9.7320118 -6.1491804 1.8124266
14.953548 -5.8763595 1.3584344
15.42334 -6.1202979 1.278798
22.47575 -6.0928202 1.2939782
28.39024 -6.1317091 1.5222734
33.382118 -5.7375913 2.1985197
35.93713 -6.9932661 2.0695114
-3.7010853 -1.8152361 1.3489819
3.0589628 -1.9394622 1.9454947
9.5201826 -1.9046314 1.9992716
15.743858 -2.2205267 1.268916
22.586834 -1.8198133 1.4723722
28.367096 -2.0760238 1.8611128
33.832294 -1.782294 1.9590039
37.401386 -3.3395414 1.5701002
-5.405158 1.3881516 1.5710926
-4.6243105 2.026639 1.8168679
3.046205 2.3219299 1.9863157
9.9323072 2.477241 2.0218153
15.706614 2.3276949 1.2792218
22.273479 2.4449964 1.4040449
28.463131 2.245172 1.863924
41.26062 2.1210251 1.7646401
47.717884 2.0107574 1.9978004
-5.3143783 6.7503386 1.144033
-3.5848799 7.3050547 1.3725438
3.1903272 6.7306614 1.8871627
9.7073956 6.55194 1.9931394
14.192394 6.8493185 1.1208827
15.694487 6.575386 1.2248683
22.196772 6.6558714 1.3963453
28.662485 6.6255875 1.9295675
34.613594 6.8300133 1.8203962
35.018761 6.7079077 1.9291693
41.246189 6.387516 1.9373026
48.05928 8.2462044 2.2359109
-26.49597 14.104159 1.3894056
-24.842491 10.094429 1.3730688
-3.7245409 11.796122 1.4099336
3.1786938 10.944417 2.0108252
9.5988407 12.516803 1.872516
10.219883 10.505221 1.2496043
15.930591 10.894498 1.1454489
22.220955 10.706795 1.4162705
28.739655 10.91798 1.9190364
34.958038 10.934448 1.9413784
35.104694 14.814807 1.9248154
41.269974 12.846409 1.8614445
47.468563 11.352675 1.3452876
-6.8952627 18.456276 1.1081197
-3.421761 18.240652 1.9528792
3.1970403 17.255095 1.9967155
9.7304058 18.515232 1.9243367
15.995131 17.41342 1.162678
22.322159 17.415504 1.3621445
28.199339 17.211908 1.9361185
34.940022 19.468483 1.847919
35.099968 15.424488 1.4733067
41.657162 17.585615 1.6009775
-6.3974295 22.191677 1.4902576
-3.4985085 24.172125 1.7071662
3.242259 23.845623 2.003005
9.6244755 23.502226 1.8807909
15.770979 23.693089 1.2251067
22.25108 23.659529 1.426331
28.702621 23.857903 1.8435559
34.995483 23.464478 1.9325933
35.004311 23.4352 1.9849972
41.036789 23.393322 1.9060712
47.658787 23.452713 1.6407483
-17.489029 29.697372 1.0770317
-3.6984608 26.210548 1.7227337
2.955718 26.834108 2.023138
9.0548782 27.078514 1.7422984
10.316603 27.035351 1.7533612
15.603983 27.091106 1.2234309
22.945927 26.661373 1.5003283
28.378101 26.6782 1.7382352
34.874229 26.921818 1.8256876
35.04129 27.852575 1.7410407
41.323097 26.974403 1.5738344
47.709137 27.002361 1.8015578
-28.941578 32.899765 1.3655792
-19.238453 30.986767 1.0611458
-3.2527905 31.409895 2.0374362
2.6482522 31.275761 1.7925088
9.7107449 31.305744 1.9607511
14.76907 33.062721 1.9940968
15.957659 31.177208 1.1820853
22.368465 32.115246 1.1802311
28.610563 31.02359 1.8965117
34.995567 31.947206 1.8019794
35.078728 31.306568 1.8290081
41.584808 30.982841 1.786706
47.703861 31.151709 1.8110603
-9.4221115 39.858307 1.8833641
-3.4372554 39.690502 2.2691827
3.1489725 35.308098 1.9262844
9.616312 35.534592 1.9957728
10.032354 39.535851 1.4893241
15.662919 35.582466 1.3549092
22.598118 35.245186 1.3592699
29.053596 35.2285 1.6459363
35.310982 35.465004 2.0458474
41.281548 35.156631 1.9478843
47.865318 39.523117 1.7095973
-29.295273 42.572205 1.8469054
-22.547386 42.269318 2.0058947
-16.238781 44.919342 1.9533018
-9.0698919 40.132309 1.9334836
-3.1952338 40.094006 2.0174909
3.2568581 40.166161 2.0075853
9.559473 40.113342 1.8611711
15.819189 40.15078 1.2819929
22.416824 40.155819 1.28933
28.727304 40.229187 1.9676893
34.783218 41.248802 2.1907189
35.002991 40.069931 1.8518629
41.126083 40.115982 1.8931501
47.504967 40.085396 1.7166777
-29.000448 49.802925 1.9411132
-22.716988 49.865059 1.968399
-15.982613 49.843826 1.9947877
-10.296146 47.864025 1.5199085
-9.6027374 46.039791 1.9264966
-3.1870947 48.294121 2.0083632
3.4030252 45.055012 2.0273166
9.355135 48.455322 2.0154338
15.67255 45.046524 1.2530344
22.476112 45.063736 1.4654232
28.796076 48.419048 1.7197424
34.935345 47.632854 1.6235596
35.134949 48.192825 1.8767005
41.525291 48.213455 1.8756704
47.957664 45.215614 1.1805538
-29.092365 54.918713 1.6975604
-22.401375 54.917923 1.8683687
-16.263336 54.930588 2.1832855
-10.157652 53.614998 1.8009691
-9.4499321 52.586098 2.2327161
-3.0146351 52.494728 1.9132504
3.4956379 52.56395 2.4380422
9.4360714 52.607811 1.8447726
15.964821 52.571198 1.231331
22.423058 52.593475 1.3268733
28.65789 52.387142 1.9877664
34.912811 52.746246 1.907747
35.098526 52.667786 2.0758452
41.202324 52.265018 1.9015255
47.689064 53.667259 1.4535525
-29.102837 59.124287 2.0926394
-22.830622 59.511703 1.7776734
-16.50848 59.028824 2.0887582
-10.235672 58.996254 2.0114956
-9.6219492 57.008286 2.0966539
-3.4907269 56.936607 2.2444828
3.0758474 56.771767 2.2381079
9.8184853 57.182983 2.0199959
10.242332 57.928814 1.2376276
15.67111 57.060074 1.1246281
22.337713 56.929375 1.3358724
28.768242 56.948143 1.798714
34.828964 58.056877 1.5701782
35.152714 56.627556 1.8300008
41.527794 56.594658 1.8936366
47.745575 56.956886 2.1038489
-28.758324 63.234734 2.0609322
-22.923401 63.562836 1.9101391
-16.240547 62.968361 1.9207218
-9.1115074 61.344788 1.9313449
-3.2783151 60.749207 1.9771783
3.1525035 60.975269 1.9488103
9.7472267 61.004143 1.9159474
12.564687 61.967201 1.2823703
16.004372 61.059486 1.2931697
22.368301 61.009682 1.3657022
28.826717 61.02256 1.727409
34.926537 61.153046 1.962172
35.134583 60.875137 1.8300405
41.338493 60.899441 1.9079106
47.851543 60.71035 1.9347649
-29.523895 68.296432 2.0252106
-22.647469 67.793808 1.7071178
-16.656113 67.564087 2.0069966
-10.312137 66.639435 2.1145947
-9.8410435 65.329651 2.0528417
-3.2003353 65.186172 2.1005282
3.344487 65.51384 1.9814142
9.6300554 65.494431 2.0136197
10.058777 65.796188 1.1020029
15.609852 65.45224 1.3650286
22.590134 65.169724 1.2855356
28.822098 65.337502 1.8512068
34.968231 65.355713 1.8659692
35.130672 65.237068 2.0746491
41.463287 65.218643 1.9867775
47.532524 65.1716 2.0148754
-29.438215 72.128204 1.8965394
-22.875565 71.89006 1.6853789
-16.031534 74.954544 1.8951738
-10.021835 74.947815 1.8922243
-9.498147 70.17337 2.0002191
-3.3510258 70.08812 1.8321271
2.7991247 70.250076 1.8944411
9.7917137 70.138718 1.94642
10.068953 70.616013 1.3676927
15.734188 70.228378 1.3585912
22.288067 70.089355 1.3998011
28.653044 70.095261 1.8270999
34.849308 70.243637 1.9693732
35.042866 74.658493 1.8379054
40.773811 71.029938 1.5639584
47.844032 70.761948 1.4012628
-28.911669 79.694687 1.7353625
-22.374794 79.801483 1.9413486
-16.142241 79.857338 1.865909
-10.208355 75.83374 1.6349463
-9.6934052 78.451881 2.0611374
-2.8974161 78.089752 2.1866314
3.0161939 75.07811 1.9774545
9.1591702 78.399338 1.8258796
15.631836 78.313431 1.2184184
22.536055 75.061096 1.3103609
29.052517 78.324966 1.8677813
34.934715 78.247101 2.032825
35.255684 76.660172 2.144979
41.286434 77.963509 2.0139804
48.020489 77.71521 2.0224462
-29.53326 84.574593 1.6070391
-22.687399 84.878128 1.9891311
-16.07411 84.586563 2.07847
-10.032707 84.798187 1.6192963
-9.5838394 82.556793 1.979787
-3.3403978 82.459335 2.2279868
3.4557176 82.216187 2.2663651
9.5894442 82.011124 1.8876352
16.013248 80.24852 1.2292726
22.521973 82.588531 1.3534594
28.626471 82.189316 1.8916919
34.934509 82.80957 1.9369226
35.226357 82.449425 1.8754373
41.031002 81.921555 1.9496958
47.576134 81.888565 1.826377
-29.077923 89.003532 2.0210872
-22.724237 89.048645 1.8626217
-16.387709 88.966377 2.2375226
-10.295972 88.561478 2.2280412
-9.4530964 85.161819 2.0557377
-3.2267637 85.165817 2.0064683
3.1791053 86.359146 1.9171956
9.6680164 87.975906 1.8244495
14.318718 87.161987 1.4104476
15.721634 85.641655 1.2737012
22.219639 86.551865 1.2836922
28.426212 88.774796 1.8696877
34.942242 85.128433 1.9191618
35.004601 85.561539 2.0051401
41.857643 86.172943 2.2736759
47.944206 87.317215 2.6567249
-29.15453 93.274719 1.744698
-22.377932 93.381516 1.6382071
-16.529358 93.011879 1.925213
-10.099567 91.449554 2.0465908
-9.8553715 91.346512 2.0779748
-4.0685372 90.379921 1.5444422
3.4187961 90.776489 2.0663753
9.4440098 93.440781 1.9531511
14.997379 91.389801 1.2641346
15.796463 90.999542 1.3070731
22.663597 91.079102 1.3367445
28.511623 91.644119 1.9357898
34.961433 90.515656 1.7105546
35.083084 94.921463 2.0512428
41.356422 90.270828 1.8926952
47.973297 90.502228 1.5726688
-29.036316 97.536163 1.6995769
-23.152119 97.547897 1.6498647
-16.720583 97.467072 1.8105106
-10.190628 97.341217 1.9772601
-9.8276196 95.587433 2.5313978
-3.1652713 95.458923 1.8679935
2.9727402 95.265518 2.0192876
9.3912735 95.127563 1.9481065
14.983456 95.281067 1.3344561
15.804245 95.328232 1.2840728
22.468674 95.240829 1.2809899
29.12159 95.113846 2.1910517
34.928982 95.237885 2.0140672
35.102009 97.075958 1.9916073
41.70488 98.956825 1.8963373
47.63662 95.050903 1.8740392
-28.984789 104.93953 1.9726334
-22.794342 101.82941 1.96645
-16.511452 104.93051 2.0110679
-10.12121 104.93353 1.967999
-9.484767 100.11691 1.8729656
-3.4375548 100.18242 1.8143167
3.1962078 100.09386 1.9689492
9.4645004 100.13101 2.0389533
12.523609 102.02425 1.7159343
15.850782 100.08273 1.2882351
22.390642 100.08778 1.3066857
28.763081 100.13792 1.9582837
34.98484 100.25226 1.955477
35.036804 100.14122 1.9053832
40.607067 101.01594 1.4864763
47.747242 100.04193 1.7039559
-28.883453 109.82616 2.0166979
-22.83952 109.80722 2.0578752
-15.999632 109.80011 2.0212715
-10.04467 105.32919 1.6810604
-9.6782475 107.99811 1.942434
-3.6066976 107.99922 1.9626904
2.6490488 108.11305 1.8393203
9.3882771 108.04256 1.8922387
16.25536 107.77358 1.1803963
22.346989 108.12701 1.3128767
28.793745 107.50912 2.0243955
34.970085 108.38747 1.9909523
35.336262 107.81456 2.0412037
41.682571 107.91574 1.9187524
48.02253 107.39743 1.8561099
-29.002785 114.69157 1.834857
-22.949162 110.18488 1.9835075
-16.792259 114.69752 2.0806475
-10.071459 110.32306 1.8015382
-9.3419151 112.40702 1.8981907
-3.2157745 112.51759 2.0735502
3.3506403 112.5069 1.8890156
9.7422981 112.25037 1.7709334
15.839472 112.0789 1.2023003
22.548655 112.30991 1.307453
28.88575 112.08021 1.6857264
35.27372 112.21609 2.0390184
41.64127 111.87274 2.068651
47.646469 111.74361 1.9106898
-28.95509 119.01463 2.0120468
-22.938408 118.99693 1.9678203
-16.315489 118.67284 2.0521603
-10.181649 116.95665 1.9801648
-9.8243952 116.61107 1.9448671
-3.2721269 116.38082 1.9567941
3.1467578 116.71323 1.9525214
9.243206 116.48698 1.8732709
10.081789 117.87706 1.4620473
15.79528 116.68866 1.1126896
22.608912 116.14479 1.3345933
28.658661 116.49553 1.8730491
35.317928 116.39709 1.9995617
41.454651 116.23048 1.6773674
47.911682 116.21974 1.870121
-28.666355 123.74118 1.6534169
-23.01152 123.28596 2.0283155
-16.062008 122.81277 1.7400106
-10.257231 123.06008 2.0874596
-6.3312321 120.29239 1.3876667
-3.4707241 120.94543 2.4603744
3.0668926 120.93668 1.9303842
9.8002977 121.06255 2.0762639
10.04649 121.09413 2.0216947
15.682488 120.69144 1.3254168
22.47489 120.57521 1.368926
28.621319 120.73577 1.8317019
34.969273 120.73534 1.9004667
35.29464 120.52072 1.6884329
41.883892 120.38191 1.7682962
47.8302 120.41957 1.5307715
-28.901516 127.33035 1.8834846
-23.001562 127.55103 1.6551585
-16.219461 127.20406 1.8757941
-10.309352 126.59575 1.7211622
-9.79669 125.08731 2.1831913
-3.3471203 125.1365 2.1086345
3.3013988 125.1872 1.9608805
9.5448561 125.11037 1.9703362
14.99409 125.95287 1.9404159
15.766798 125.12134 1.3094692
22.299183 125.10176 1.3183202
28.789814 125.10381 1.947908
34.860619 125.78786 1.6204046
41.235336 125.19435 1.6390693
47.642265 125.1019 1.552176
-29.208338 134.92184 1.721485
-22.820692 131.81252 1.7241632
-16.512051 134.83064 1.8976791
-10.077671 134.08301 2.1963973
-9.8842745 130.13843 2.0915451
-3.0585706 130.13281 2.0049706
3.0028951 130.14841 1.9041429
9.5069389 130.10129 1.9925439
14.649548 134.32251 1.3926064
15.728106 130.05112 1.2795346
22.429691 130.09541 1.33219
28.585472 130.13309 1.3365583
34.841003 130.08565 1.9770254
35.313419 133.12106 2.2806602
41.314728 130.08156 1.9375858
47.558109 133.79388 1.5158498
-27.995586 138.58656 1.4242716
-22.786245 139.69482 1.6799991
-16.515556 139.63364 2.0225239
-10.203736 139.65854 2.0190837
-8.9645805 135.46721 1.3602405
-3.5663068 138.05025 1.9676263
2.9901156 138.09387 2.0146294
9.7064266 137.48494 2.1078515
10.291555 138.46649 1.3399729
15.426714 137.65201 1.311317
22.18565 137.70593 1.3527573
28.570169 137.46281 2.0799437
34.872841 137.87708 1.9882199
35.314129 137.72467 1.9352176
41.402931 138.03082 1.7489913
47.927956 137.6586 1.8231609
-28.120319 144.22678 1.6065277
-22.080929 143.21983 1.9457797
-15.53219 143.66272 1.6972771
-10.131765 142.00859 1.987803
-9.9516716 142.27054 2.0497589
-3.6087861 140.16638 1.9876411
2.5429668 142.40219 1.713514
9.2902422 141.9518 1.9158597
14.97858 142.73848 1.9424391
15.263876 141.74133 1.8133689
22.057957 141.84326 1.6967947
27.777727 141.66144 1.6228002
34.974266 141.93283 2.0102005
35.021034 142.85597 1.5806804
41.198318 141.91501 1.7723424
47.892372 142.09718 1.4131477
-28.268147 147.73035 1.9812579
-21.589495 147.56009 1.7276251
-15.448585 147.3298 1.6552756
-10.159681 146.38019 1.9093094
-9.7498083 146.2032 1.9298048
-0.71368986 148.76532 1.1574719
2.7894325 145.93893 1.7227179
9.0891724 146.31207 1.8159289
13.688408 146.00674 1.6637946
15.16415 146.90021 2.0104411
21.845945 146.01399 1.710587
28.032978 146.27243 1.8427079
34.948166 147.52591 1.647719
35.190434 146.4998 2.0932403
41.087547 146.2511 1.4305758
47.422039 146.09375 1.6501739
-28.387772 152.41995 1.4973652
-21.793909 151.60249 1.4200206
-15.37015 151.41943 1.8447638
-10.303982 150.66646 1.7106531
-9.8924809 150.96091 2.1100812
-3.3410227 150.12506 1.6594456
2.7115233 150.36392 1.8344824
9.2042656 150.24425 2.0371065
13.059264 153.70271 1.1979802
15.684225 150.43573 1.7548397
21.808002 153.80591 1.2946143
28.132431 150.27196 1.8651319
34.837013 150.62131 1.9132036
35.125824 150.55051 1.9972756
41.278 150.3143 1.7041925
47.445854 150.61932 1.8261286
-28.301388 156.33371 2.3599498
-22.099045 158.72009 1.5853891
-15.280993 155.53975 1.9553475
-10.010321 159.28902 1.7342712
-9.5892038 155.10623 1.9320896
-3.3766186 155.11111 1.8121127
3.168215 155.1174 1.9376796
9.2264481 155.16316 1.9229429
13.307371 156.41243 1.4763396
15.193254 155.66843 2.0051017
22.139549 155.06874 1.9124529
28.115746 155.18427 1.9942008
34.826477 155.39417 1.9016706
35.003326 155.09004 2.0066164
41.720779 155.12914 1.8339665
47.442242 155.31174 1.9592253
-6.753406 162.67181 1.1120529
-2.465996 163.53777 1.2773002
3.6526141 160.52737 1.174693
-7.1819611 166.80643 1.1872685
-25.088463 174.48694 1.660426
-20.499943 174.21649 1.6014687
-15.666368 174.15244 1.4385803
-10.684088 173.97214 1.2896397
-6.0127621 173.8356 1.3310246
-3.207778 174.16304 1.1826385
9.8375378 174.14249 1.0330833
11.768179 174.13785 1.0665511
19.930735 174.2623 1.1493754
24.060989 174.2532 1.2181679
27.196728 174.21065 1.3897184
32.803532 174.12697 1.4664503
44.418549 173.74088 1.9424229
47.600952 172.37473 1.6172451
41.734097 176.00452 1.5530442
43.690887 180.52463 2.0883656
44.484009 188.16423 1.5136538
44.051216 190.08641 1.9829898
45.102436 193.56323 2.7557926
42.856483 199.20682 2.2231245
