# .PCD v0.7 - Point Cloud Data file format
VERSION 0.7
FIELDS x y z
SIZE 4 4 4
TYPE F F F
COUNT 1 1 1
WIDTH 705
HEIGHT 1
VIEWPOINT 0 0 0 1 0 0 0
POINTS 705
DATA ascii
34.621544 -105.10806 1.3539789
34.947289 -104.84025 1.2909763
35.109177 -104.81804 1.2838936
-12.757624 -86.249672 1.2911636
-8.9274502 -86.383591 1.1737844
5.55935 -86.765137 1.1381073
29.720375 -87.112122 1.0835201
30.140808 -86.990318 1.0873406
35.131428 -86.978851 1.266006
40.049248 -87.060669 1.2767235
45.560883 -87.264908 1.1170795
-21.465055 -81.180954 1.9877832
-18.092415 -83.181236 1.0429492
-14.761883 -82.079758 1.5552174
22.837599 -75.314186 1.2772381
28.110361 -75.166832 1.6510733
-21.488426 -70.778381 1.2944993
20.455997 -71.263275 1.1202036
25.010811 -71.45723 1.4726681
-28.896812 -65.183456 2.0121703
-22.06205 -69.528336 1.1871924
-16.304432 -65.172485 1.8354542
-9.3536701 -65.586548 1.9948809
-3.2058859 -65.122131 1.8742369
3.2849889 -65.113449 1.9618194
9.7810268 -65.209877 1.8281173
10.091247 -66.134636 1.4740868
15.781603 -65.17186 1.9361458
23.804279 -65.476143 1.3033947
28.496754 -65.137894 1.9917169
34.600288 -65.925156 1.8804486
35.002396 -65.818962 1.7931221
40.76083 -65.859451 1.8189306
47.426178 -66.087921 1.8228381
-28.741447 -60.293228 1.7114017
-23.146418 -60.121864 1.3430735
-16.096722 -60.505402 1.8790371
-10.288808 -60.614399 2.5059021
-6.2633524 -60.591599 1.4558985
-3.2245436 -60.143795 2.0167129
3.5586305 -60.335613 1.851413
9.7711239 -60.464767 1.970274
10.026321 -60.960426 1.9206607
15.629722 -60.462639 1.8228867
22.15173 -60.174347 1.5677568
28.705723 -60.189072 1.6742696
34.445961 -61.488533 1.8951225
35.037586 -61.868591 1.9108677
40.969864 -61.659855 1.7047651
47.498993 -62.615093 2.2390671
-28.679693 -55.942635 1.9034559
-22.967216 -55.420456 1.2624536
-16.345148 -55.967342 2.0342717
-5.6269469 -57.112724 1.2077775
-2.9880114 -59.411804 1.8293198
3.5965829 -56.19091 1.9982194
9.647398 -56.469925 1.6878772
15.624754 -56.260429 1.9210522
22.212805 -56.26553 1.7536254
28.132412 -56.469376 1.6738555
34.499069 -57.462898 1.8115658
35.174141 -57.707817 1.8882024
41.03093 -57.829453 1.9933488
47.497017 -57.552513 1.2395947
-28.711657 -51.590488 2.2564263
-16.289679 -51.894058 1.8937814
-9.1409197 -51.243523 1.5974729
-3.4204044 -50.077255 1.8808333
3.0831959 -51.535034 1.666961
9.4752808 -51.774544 1.9972764
15.752926 -51.813728 1.5800333
21.881077 -51.074989 1.1384323
28.556635 -52.006054 1.6988155
34.489525 -53.171516 1.5747092
35.125137 -53.226677 1.6107111
40.777214 -53.437027 1.8111924
47.007217 -53.689003 1.8980873
-28.870567 -48.015163 1.616941
-22.61488 -47.015713 1.1392409
-16.340906 -47.462372 2.0177779
-10.049104 -47.536129 2.2213647
-9.7459755 -47.756973 2.0275905
-3.6941507 -47.587608 1.479183
2.9360368 -48.099018 1.0894891
9.1447258 -48.098625 1.8168175
10.000162 -48.99749 1.4345676
15.552004 -47.95961 2.1248837
23.581966 -47.573875 1.3622446
28.097187 -47.707115 1.5618864
34.947487 -48.738194 1.8935375
35.239372 -49.796921 1.9176822
40.765671 -49.615089 1.873421
47.123138 -48.758362 1.4773021
-28.987207 -43.148758 2.0976481
-22.929531 -43.501907 1.1623895
-15.992884 -40.055424 1.9451154
-10.509107 -44.380192 1.3008007
-9.7855558 -40.13258 1.9707574
-3.1550961 -40.109161 1.3198602
3.204262 -40.227638 1.1166852
9.2452822 -40.206505 1.9150584
10.195758 -40.723824 1.3163686
15.634639 -40.231781 1.9799402
22.448263 -40.093521 1.9480168
28.339279 -43.891994 1.7514553
34.912918 -44.799278 1.8336943
35.028881 -44.723694 1.8150465
41.323784 -44.909607 1.5869218
47.548206 -44.662697 1.6642947
-28.802526 -35.201019 2.0389948
-16.039749 -35.109428 1.9899718
-10.152582 -38.941006 1.8902562
-9.4464025 -35.163437 2.0378132
-3.7620249 -35.268608 1.4486847
3.3495736 -35.598404 1.1998932
9.337038 -35.186569 1.6432574
10.254168 -36.747055 1.4388177
15.773861 -35.24789 1.9531894
21.876297 -35.344635 1.6035714
28.302876 -35.851337 2.018594
34.75251 -37.208519 2.0006764
35.131721 -36.780571 1.9609394
41.094791 -36.871788 1.862648
47.593044 -37.42868 1.9464356
-28.726761 -31.61558 2.0525985
-16.139212 -32.429234 1.9834228
-10.001076 -34.435043 1.9762592
-9.5669041 -31.814026 1.9833198
-3.491056 -31.567219 1.3299584
3.2420793 -32.256058 1.1062889
8.9751244 -32.07003 2.0032749
15.302168 -31.972816 1.8584743
21.702618 -32.660316 1.9841974
28.401154 -31.843597 1.823452
34.668602 -31.963758 1.5601944
35.254005 -32.982475 2.0562308
41.161987 -33.271023 2.3322849
47.84341 -32.98954 1.4011832
-28.925983 -27.232254 2.0238216
-23.418703 -27.722422 1.3024344
-16.165752 -27.182888 1.9921224
-9.7643871 -27.46917 1.9482579
-3.6784725 -27.528961 1.3927706
3.0141351 -27.813303 1.1378648
9.5321589 -27.739996 1.9127095
15.570404 -27.922962 1.9573721
21.906416 -27.420406 1.9377525
28.370647 -27.860371 1.9493995
35.279732 -28.445389 1.884459
41.105305 -29.124779 2.0889304
47.925697 -28.933491 1.6273265
-28.694826 -22.81447 1.8860819
-22.957819 -23.50354 1.2603416
-15.977285 -23.13846 1.9651413
-10.140553 -23.440447 1.2228963
-9.9353676 -23.25708 2.0543778
-3.401751 -23.42791 1.3862123
3.2549424 -23.509329 1.1487167
9.1781263 -23.509792 1.984247
15.565056 -23.618343 2.0447884
21.660896 -23.245014 1.857842
28.174757 -24.018509 1.7300141
34.904362 -24.431896 1.7633047
35.112919 -21.802496 1.8825068
41.345303 -23.953188 2.0113249
48.110371 -24.635788 1.990227
-28.690357 -18.488449 1.8231574
-16.129189 -18.742336 2.0126348
-10.009582 -15.358163 1.9644967
-9.7320137 -18.885136 1.8807222
-3.6776361 -19.075127 1.3558731
3.1824927 -19.080063 1.1944172
9.3817644 -19.214346 2.0180929
15.769686 -19.281105 2.0202308
21.550674 -18.501863 1.5627975
28.242279 -17.22249 2.0017571
34.97451 -19.315922 2.0434642
35.211838 -19.730473 1.9828155
41.603607 -19.714767 1.8355803
47.895992 -18.830685 1.4293816
-28.596544 -12.332863 2.0043371
-22.735474 -11.075358 1.603453
-16.069908 -12.257894 1.9730805
-9.815484 -12.477959 1.9333277
-3.5463467 -12.525372 1.4142246
3.1196878 -12.606404 1.1663402
9.3690367 -12.790372 1.9793369
15.709004 -12.762845 1.9784764
22.053528 -12.6646 1.913123
27.80271 -11.372595 2.0509448
34.991589 -11.014877 1.7947222
35.175335 -14.984434 2.0376439
41.446884 -14.984949 1.9338346
47.795036 -11.820513 1.7409797
-28.06942 -9.8220921 1.4665792
-22.851635 -7.3206215 1.08504
-16.210257 -9.9806366 1.9680592
-9.5528297 -9.5646658 1.500109
-3.0464487 -9.9218254 2.0623012
2.9736352 -6.3771744 1.1010213
9.3861055 -6.2797394 1.9433618
14.955631 -5.9209161 1.3545332
15.313634 -6.448741 1.9718852
21.931761 -6.9703741 1.8172548
28.13562 -6.7647448 1.5298502
34.492699 -7.2528825 1.9371638
36.516197 -6.5889282 2.3475313
41.734192 -6.953743 1.6651955
48.018398 -7.780107 1.8889064
-3.8456981 -3.1279087 1.3973196
2.9871488 -2.210628 1.0545928
9.3691826 -2.2321074 1.6218874
10.027272 -1.7880147 1.1388283
15.919018 -2.5534873 1.9899652
22.414131 -3.0012174 1.6647553
28.204617 -3.140353 1.3859649
33.828819 -1.8237771 1.9531189
37.860619 -2.121376 1.8248017
-5.3853564 1.3477682 1.5666246
-4.2604389 0.14416319 1.6390896
2.9284415 2.219142 1.1126626
9.5865536 2.1737022 1.5859295
15.739571 1.7707388 1.7303164
22.043867 1.4905605 1.4352659
28.751507 1.4626651 1.7298412
41.51228 1.5500382 1.8316081
47.627529 1.3234022 1.7347713
-5.3086843 6.3485742 1.3334353
-2.9633875 5.514709 1.2651898
3.0395436 5.5431023 2.0250483
9.864563 6.1703968 1.3360232
11.071465 6.333703 1.2579718
16.270729 5.656251 1.1216199
22.434097 5.5651684 1.4176996
28.813919 5.5083647 1.9250913
34.860832 6.5683498 1.9599416
35.269596 5.5273538 2.0942607
41.377487 5.4619093 1.9624658
48.219154 5.5289059 2.0601058
-26.495869 14.106042 1.389632
-24.842491 10.094429 1.3730688
-3.7222202 10.748053 1.4676158
2.9570479 13.963707 2.1002102
9.5566578 10.117929 1.8520651
10.219883 10.505221 1.2496043
15.931093 10.303125 1.1251857
22.142975 10.166348 1.4032149
28.797222 10.161144 1.9198002
34.895737 10.199822 1.9299772
35.073997 12.175367 1.9729658
41.28437 10.140089 1.9730469
47.481514 11.272354 1.4459603
-6.8349123 18.397808 1.0974905
-3.2715182 15.758089 1.7777257
3.0969076 15.12236 1.9543295
9.7286892 15.063604 1.8886858
16.107903 15.203619 1.2263765
22.463093 15.211014 1.3990483
28.151699 15.072039 1.9319425
34.951744 18.859369 1.8553238
35.242661 18.346382 1.8304608
41.514507 18.195644 1.8114514
-6.4171052 21.790848 1.4483309
-3.4321346 21.669743 1.8269187
3.1068554 22.478436 2.003828
9.2892895 22.49424 1.9442478
15.760623 22.918839 1.228997
22.23439 22.59881 1.4244668
28.720734 22.64467 1.8275311
34.976761 22.902325 1.9250174
35.400623 22.537575 1.8534433
41.252014 22.697536 1.9210373
47.773514 22.462416 1.7455732
-17.489075 29.697018 1.0772859
-3.6988258 26.21245 1.7227912
2.9558139 26.833136 2.0235476
9.0550861 27.07654 1.7428505
10.315968 27.033794 1.7533114
15.48442 27.198351 1.3070022
22.944107 26.640213 1.4959955
28.378145 26.677683 1.7382019
34.874336 26.920773 1.8255087
35.023277 27.844467 1.8204141
41.323196 26.973698 1.5734235
47.709538 26.998089 1.7998692
-28.930433 32.894562 1.3636276
-19.241192 31.007696 1.0548368
-3.2526271 31.391901 2.0041468
2.6098623 31.233074 1.7587378
9.7511768 31.287775 1.9587145
14.801542 33.005867 1.9861782
15.96203 31.15398 1.1797197
22.443626 32.146767 1.1827971
28.610708 31.05617 1.8997563
34.995567 31.947206 1.8019794
35.077133 31.294903 1.8262146
41.585892 30.971771 1.7867537
47.703884 31.147758 1.8052616
-9.4221115 39.858307 1.8833641
-3.4373736 39.686661 2.2743931
3.1488767 35.308849 1.9255465
9.618103 35.527893 2.0169985
10.032354 39.535851 1.4893241
15.657657 35.587006 1.3521435
22.598022 35.245518 1.3584988
29.067936 35.218872 1.6039912
35.311966 35.47184 2.0435634
41.27998 35.153679 1.9476215
47.865608 39.526024 1.7113731
-29.291096 42.56218 1.8717113
-22.813484 42.40361 1.9746952
-16.238205 44.94696 1.9502025
-9.0702915 40.13485 1.9317273
-3.1955643 40.09594 2.0252252
3.2568049 40.183151 2.008009
9.5802193 40.071182 1.8680187
15.819181 40.154518 1.2810044
22.419024 40.080139 1.3021301
28.738728 40.126915 1.963131
34.783211 41.251152 2.1914835
35.002914 40.074013 1.8531809
41.123299 40.092537 1.8999062
47.504822 40.094257 1.7203224
-29.000448 49.802921 1.9411076
-22.716988 49.865059 1.9684
-15.982613 49.843826 1.9947922
-10.296146 47.864025 1.5199085
-9.6045113 46.088123 1.9302965
-3.1872494 48.294312 2.0089471
3.3453317 45.083958 2.0302405
9.3549891 48.455616 2.0155993
15.672281 45.044106 1.260993
22.475449 45.061211 1.4868183
28.789236 48.420197 1.7218305
34.935345 47.632854 1.6235596
35.134361 48.202629 1.8882639
41.525173 48.221664 1.8769834
47.957664 45.215614 1.1805538
-29.092365 54.918713 1.6975604
-22.401333 54.908756 1.8691976
-16.263216 54.910038 2.1554332
-10.157652 53.615299 1.8021655
-9.6924171 52.592163 2.068459
-3.0181108 52.387699 1.9638026
3.5232558 52.447075 2.4204988
9.5616722 52.637695 1.8382761
16.180107 52.576027 1.1823878
22.436335 52.604408 1.3393075
28.612686 52.360588 2.0112681
34.846596 52.959106 1.9867818
35.088074 52.470848 2.1694031
41.182602 52.233826 1.9190257
47.689064 53.667259 1.4535525
-29.103077 59.129921 2.0894594
-22.830597 59.512169 1.7770419
-16.508392 59.032166 2.0864038
-10.235338 59.008057 2.0038929
-9.6219664 57.007271 2.0965426
-3.4907448 56.935829 2.2448156
3.0758383 56.771591 2.2383986
9.8175392 57.185532 2.0207114
10.242332 57.928814 1.2376276
15.671125 57.057648 1.1246276
22.33741 56.928482 1.3361113
28.771023 56.94873 1.7988138
34.828972 58.057663 1.5700738
35.152927 56.627815 1.8300273
41.527786 56.594597 1.8936981
47.745567 56.95694 2.1038518
-28.763695 63.231873 2.0593829
-22.922916 63.553234 1.9107661
-16.256563 63.012688 1.8133365
-9.1115074 61.344791 1.9313451
-3.2782571 60.749336 1.9771914
3.152504 60.975395 1.9488227
9.7472277 61.004211 1.9158434
12.564687 61.967201 1.2823703
16.004192 61.059448 1.2931809
22.368401 61.009705 1.3656147
28.826717 61.022606 1.7274114
34.926537 61.153358 1.962202
35.134583 60.875137 1.8300406
41.338493 60.899506 1.9078532
47.851543 60.710388 1.9347682
-29.524017 68.280472 2.0296049
-22.563377 67.866302 1.6908772
-16.656078 67.562607 2.008275
-10.312084 66.64653 2.1154113
-9.8579597 65.328568 2.0523791
-3.2015567 65.182396 2.1012113
3.3463686 65.511917 1.9824026
9.6269341 65.485855 2.002178
10.056213 65.785736 1.1008854
15.619978 65.450958 1.3681704
22.509951 65.301567 1.3100381
28.819313 65.331833 1.8575338
34.968269 65.344604 1.8676031
35.131664 65.285309 2.0799124
41.460464 65.210167 1.9951687
47.529823 65.168015 2.0250735
-29.430796 72.143127 1.8872662
-22.875647 71.889877 1.6827209
-16.031498 74.953239 1.8932952
-10.021804 74.91507 1.894258
-9.4980202 70.173019 2.0051813
-3.3513269 70.068329 1.8304985
2.8004456 70.242325 1.8938482
9.7917328 70.140785 1.9461472
10.068953 70.616013 1.3676927
15.734188 70.228378 1.3585916
22.286264 70.162216 1.4179404
28.652437 70.094826 1.8262303
34.849361 70.247879 1.9696777
35.024521 74.661507 1.8293211
41.291309 70.219208 1.6647803
47.844032 70.761948 1.4012635
-28.911667 79.694695 1.7353617
-22.374741 79.8041 1.9411035
-16.142239 79.857338 1.8659079
-10.194512 75.870094 1.6114967
-9.6934118 78.452148 2.0611587
-2.897418 78.08979 2.1866345
3.0162034 75.077606 1.9775254
9.1591692 78.39933 1.8258713
15.631884 78.31102 1.2182182
22.536053 75.061096 1.3103609
29.057652 78.323959 1.8676603
34.934715 78.247124 2.0327988
35.259224 76.652946 2.1738043
41.261261 77.960846 2.0332334
48.020485 77.71524 2.0224457
-29.531185 84.582291 1.6070354
-22.68738 84.879387 1.9906367
-16.05094 84.589325 2.0782061
-10.03075 84.674347 1.6255929
-9.5838413 82.556839 1.9797919
-3.3403983 82.459335 2.2279873
3.4497366 82.297302 2.060216
9.5891943 82.006111 1.8738489
16.013248 80.24852 1.2292731
22.521969 82.588593 1.3534658
28.826668 82.177582 1.7870343
34.934494 82.809525 1.9369277
35.226357 82.449425 1.8754373
41.030964 81.921112 1.9500744
47.576294 81.879974 1.8339292
-29.077938 89.010056 2.029593
-22.724201 89.050201 1.8624973
-16.387608 88.970627 2.2371807
-10.295965 88.561371 2.2280142
-9.4529934 85.16156 2.0559874
-3.2271369 85.165817 2.0064867
3.1791072 86.357765 1.9170649
9.6681919 87.956802 1.8229725
14.317873 87.161598 1.410665
15.722164 85.645554 1.2739911
22.219658 86.549019 1.2825044
28.426216 88.774963 1.8696742
34.940369 85.116226 1.9144347
35.024738 85.566193 1.9705846
41.858341 86.116394 2.2653091
47.944614 87.316719 2.6555471
-29.154305 93.28788 1.7040851
-22.377518 93.385834 1.6685133
-16.622826 93.022827 1.8123007
-10.09992 91.46991 2.049135
-9.8553696 91.347015 2.0780156
-4.0678177 90.380386 1.5445912
3.4099331 90.766769 2.0604444
9.4441566 93.440857 1.9531579
14.997379 91.389801 1.2641346
15.798665 91.019623 1.3060074
22.633341 91.057274 1.3296909
28.510975 91.647491 1.896919
34.961494 90.516319 1.7102571
35.082878 94.906403 2.0498378
41.356525 90.275314 1.8932216
47.973297 90.502228 1.572669
-29.039349 97.527588 1.6944828
-23.1091 97.527298 1.6724659
-16.724781 97.456131 1.8084428
-10.190876 97.323349 1.9789424
-9.8274803 95.586044 2.5318961
-3.1651893 95.458069 1.8683043
2.9728923 95.266922 2.0217123
9.3912935 95.127342 1.9482026
14.983456 95.281067 1.3344561
15.804287 95.327759 1.2842771
22.468712 95.240341 1.2812123
28.915739 95.189751 2.1349211
34.929115 95.240776 2.0149183
35.102043 97.076378 1.9922051
41.671127 98.958176 1.8812418
47.635269 95.070374 1.8664217
-28.984789 104.93953 1.9726334
-22.794342 101.82941 1.96645
-16.51165 104.91667 2.0124717
-10.121273 104.92917 1.968441
-9.4850359 100.11819 1.8736767
-3.460839 100.13683 1.8113701
3.1951301 100.09933 1.9730482
9.4642277 100.13243 2.0401502
12.534166 101.9756 1.6667756
15.797825 100.15565 1.2866218
22.389637 100.09395 1.3127587
28.76281 100.13949 1.9599769
34.977291 100.28447 1.9394456
35.032532 100.16685 1.9349222
40.604977 101.02927 1.5027442
47.747257 100.03645 1.7016616
-28.883286 109.84181 2.0184124
-22.839493 109.81006 2.0576134
-15.999615 109.80195 2.0211034
-10.04467 105.32919 1.6810604
-9.6690922 108.00455 1.9398865
-3.6067147 107.99783 1.9599943
2.7868736 108.1259 1.877986
9.3963757 108.04726 1.890815
16.208305 107.78443 1.1804806
22.443768 108.14517 1.3198166
28.791214 107.50917 2.0243874
34.969475 108.33308 1.9947526
35.336246 107.81459 2.04125
41.671539 107.92196 1.9200877
48.02256 107.39854 1.8563521
-29.029858 114.71219 1.8451409
-22.949162 110.18488 1.9835075
-16.785332 114.71534 2.0865002
-10.067503 110.33354 1.7988849
-9.3419151 112.40701 1.8981907
-3.2157745 112.51759 2.0735497
3.3506403 112.50692 1.8890171
9.7085857 112.29113 1.7967966
15.82329 112.10196 1.2238994
22.515869 112.36113 1.3710148
28.877337 112.09412 1.7063847
35.238544 112.27568 2.1402047
41.636391 111.84763 2.0811033
47.714172 111.74309 1.9288751
-28.955101 119.01463 2.012048
-22.938408 118.99693 1.9678271
-16.315489 118.67284 2.0521412
-10.181571 116.95624 1.9801252
-9.8066282 116.68219 1.9737619
-3.2673426 116.39584 1.9637791
3.1395545 116.71523 1.9542718
9.2502928 116.52533 1.706059
10.081789 117.87706 1.4620473
15.79528 116.68866 1.1126899
22.611021 116.15243 1.3321522
28.492767 116.42776 1.8124149
35.322216 116.40633 1.9894358
41.459324 116.24344 1.6650319
47.916 116.23276 1.855731
-28.666523 123.75684 1.5724115
-22.782303 123.19365 2.0203068
-16.062126 122.82163 1.740772
-10.080944 122.95509 2.0346208
-6.3287816 120.29453 1.4014273
-3.4750569 120.96994 2.3341761
3.0668929 120.93658 1.9303827
9.8002968 121.06248 2.0762434
10.060953 121.49005 2.0467529
15.682529 120.70064 1.3261168
22.47504 120.59906 1.3709171
28.47533 120.76736 1.9856554
34.977631 120.682 1.9177282
35.282764 120.57256 1.6906767
41.877914 120.38905 1.7505186
47.829231 120.42114 1.5322738
-28.901516 127.33035 1.8834846
-23.001562 127.55101 1.6551415
-16.219463 127.20391 1.875808
-10.309352 126.59575 1.7211622
-9.7968941 125.09898 2.1842723
-3.3474836 125.13587 2.1084032
3.4980829 125.125 1.9396833
9.5444765 125.11618 1.9707754
14.993191 125.87119 1.9482806
15.772896 125.10043 1.2906556
22.376768 125.09842 1.3355327
28.775669 125.06692 1.9330478
34.857697 125.78682 1.6212536
35.061195 125.66083 1.6217053
41.212864 125.15618 1.6181521
47.640503 125.10632 1.5527334
-29.214642 134.93437 1.7225771
-22.800249 131.78146 1.7402959
-16.53492 134.87677 1.9181848
-10.0786 134.07535 2.1902008
-9.8845825 130.13928 2.0899231
-3.0597723 130.0748 1.997256
3.0033736 130.08386 1.8986082
9.5057287 130.10524 1.9902884
14.649548 134.32251 1.3926064
15.727973 130.05164 1.2794235
22.429165 130.09755 1.332474
28.585407 130.13336 1.3366778
34.840698 130.08679 1.977844
35.314659 133.11621 2.2801981
41.31356 130.08585 1.9428296
47.558109 133.79388 1.5158498
-28.034775 138.64847 1.4220316
-22.785017 139.69353 1.6790972
-16.506428 139.71086 2.0433469
-10.089842 139.45857 2.0870709
-8.9645596 135.47121 1.3605905
-3.6492324 138.04019 1.9674001
2.9901137 138.09393 2.0146165
9.7045536 137.48413 2.1092606
10.292855 138.51999 1.3448668
15.424282 137.64987 1.3113019
22.18565 137.70605 1.3527623
28.569405 137.46164 2.079237
34.873127 137.87738 1.9882847
35.308048 137.72171 1.94082
41.402931 138.03085 1.7489879
47.929726 137.65491 1.8228288
-28.164997 144.26907 1.6091638
-22.04711 143.41367 1.9364878
-15.572384 143.71954 1.7040259
-10.138968 142.04291 1.9526596
-9.9515285 142.27072 2.049701
-3.6087852 140.16638 1.987649
2.5429697 142.40221 1.7135158
9.2830629 141.99008 1.887936
14.961462 142.77292 1.8857561
15.256805 141.78069 1.7878284
22.054401 141.86362 1.6856349
27.775377 141.67537 1.6158142
34.96701 141.97647 1.9917929
35.021034 142.85597 1.5806804
41.191223 141.95956 1.7562555
47.89238 142.09721 1.4131637
-28.276745 147.78427 1.9684207
-21.599224 147.56082 1.7535877
-15.481325 147.38614 1.6609414
-10.087926 146.69423 1.9998565
-9.7496529 146.18013 1.9562112
-0.71382928 148.76482 1.157443
2.790982 145.92993 1.7190801
9.0891981 146.29984 1.8141928
13.688387 146.00212 1.6633514
15.120384 146.91284 2.0106122
21.84325 145.99722 1.7095735
28.032894 146.25362 1.8409132
34.948078 147.51743 1.647534
35.191864 146.50024 2.0845072
41.103123 146.25508 1.4318924
47.564445 146.14755 1.6724441
-28.382889 152.39255 1.4854476
-21.804893 151.59489 1.4212835
-15.394388 151.47542 1.8491621
-10.312548 150.64159 1.5723627
-9.8922234 150.93436 2.1095352
-3.6323714 150.16922 1.9964777
2.6766701 150.36996 1.8456433
9.2045498 150.24054 2.0336344
13.118416 153.73012 1.2093405
15.684233 150.43338 1.7551615
21.803909 153.79037 1.2931302
28.132652 150.26233 1.8695666
34.839981 150.68842 1.8999038
35.145729 150.47166 2.0000196
41.265812 150.30615 1.6990713
47.52953 150.65248 1.8395019
-28.277039 156.3006 2.308115
-22.117725 158.66702 1.5876732
-15.178864 155.58037 1.9699124
-10.010379 159.28677 1.7339187
-9.5894117 155.10583 1.9319036
-3.37746 155.1096 1.8115553
3.167366 155.11609 1.9372544
9.2135592 155.14449 1.9209101
13.294048 156.39375 1.4766253
15.193256 155.66843 2.0051157
22.139542 155.07552 1.9131191
28.117252 155.19843 1.9890096
34.825653 155.39362 1.9024416
35.003326 155.09004 2.0066164
41.720726 155.12904 1.8342161
47.44183 155.31161 1.9598291
-6.753263 162.67139 1.1130633
-2.4647903 163.53418 1.2844195
3.6526141 160.52737 1.174693
-7.1811423 166.81567 1.1795154
-25.088619 174.48645 1.6603651
-20.527115 174.21982 1.7382045
-15.666368 174.15244 1.4385803
-10.688828 173.96359 1.2888758
-6.0132051 173.83273 1.331028
-3.207778 174.16304 1.1826385
9.8375378 174.14249 1.0330833
11.767729 174.13536 1.0661654
19.930285 174.25989 1.1488187
24.060989 174.2532 1.2181679
27.196507 174.20952 1.389327
32.803387 174.12627 1.4661683
44.418442 173.74039 1.9421499
47.600952 172.37473 1.6172441
41.734097 176.00452 1.5530442
43.690887 180.52463 2.0883656
44.483906 188.16418 1.5135567
44.040878 190.10582 2.0079823
42.856033 199.20624 2.223135
